13.319984 16.851288 49.689667 
32.420067 25.851288 18.998016 
13.420067 16.851288 49.614288 
84.195854 6.851288 -19.310318 
84.420052 6.851288 -19.801399 
-30.579926 -6.148705 22.016342 
14.420067 16.851288 48.794647 
83.808983 5.851295 -18.310318 
31.420067 26.851288 18.798462 
-29.579926 -6.707138 22.689682 
-29.579926 -6.148705 22.572556 
15.420067 15.851288 47.825516 
83.745308 6.851288 -18.310318 
-30.579926 -5.148705 21.816177 
83.457466 3.851295 -17.310318 
35.420067 26.735550 17.689682 
35.420067 26.851288 17.632523 
35.156029 26.851288 17.689682 
-29.579926 -5.148705 22.356323 
83.420052 4.345024 -17.310318 
83.420052 4.851295 -17.386452 
83.384926 4.851295 -17.310318 
15.420067 16.851288 47.910339 
14.540047 16.851288 48.689667 
36.420067 26.349579 17.689682 
36.420067 26.851288 17.458939 
-29.359726 -6.148705 22.689682 
34.420067 23.498184 19.689682 
34.420067 23.851288 19.509537 
33.790367 23.851288 19.689682 
-28.917427 -5.148705 22.689682 
83.033592 3.851295 -16.310318 
83.420052 3.851295 -17.222763 
33.420067 24.058350 19.689682 
33.420067 24.851288 19.270782 
14.420067 18.114571 48.689667 
14.420067 18.851288 48.463898 
14.187080 18.851288 48.689667 
-28.579926 -6.148705 23.065613 
13.379036 17.851288 49.689667 
13.420067 17.851288 49.656876 
34.420067 24.851288 18.989731 
-27.579926 -6.148705 23.447159 
82.953758 4.851295 -16.310318 
35.420067 24.822403 18.689682 
35.420067 24.851288 18.673462 
35.368462 24.851288 18.689682 
14.420067 17.851288 48.744110 
-28.579926 -5.148705 22.855713 
13.420067 18.851288 49.401047 
13.083900 18.851288 49.689667 
36.420067 24.322327 18.689682 
36.420067 24.851288 18.408432 
83.344963 5.851295 -17.310318 
83.420052 5.851295 -17.467911 
-27.579926 -5.148705 23.297134 
35.420067 22.969162 19.689682 
35.420067 23.851288 19.225220 
14.474709 17.851288 48.689667 
15.420067 17.851288 47.735382 
83.291344 6.851288 -17.310318 
83.420052 6.851288 -17.591637 
35.633324 22.851288 19.689682 
36.420067 22.851288 19.468826 
36.420067 23.851288 18.948944 
-32.579926 -4.148705 20.361191 
-32.092422 -4.148705 20.689682 
82.869331 5.851295 -16.310318 
-32.579926 -3.148705 20.196030 
82.853371 6.851288 -16.310318 
-31.799919 -3.148705 20.689682 
33.420067 25.829941 18.689682 
33.420067 25.851288 18.676682 
33.379143 25.851288 18.689682 
82.420052 -8.425156 -15.310318 
-31.579926 -4.148705 21.023804 
34.420067 25.354004 18.689682 
34.420067 25.851288 18.388763 
82.029778 -8.148705 -14.310318 
-31.579926 -3.148705 20.823303 
82.420052 -8.148705 -15.254845 
33.420067 26.851288 18.148438 
82.420052 -7.148705 -15.152061 
-32.579926 -2.148705 20.028320 
82.061378 -7.148705 -14.310318 
34.420067 26.851288 17.867783 
-31.579926 -2.336334 20.689682 
-31.579926 -2.148705 20.656906 
82.443230 -8.148705 -15.310318 
82.487892 -7.148705 -15.310318 
-32.579926 -1.148705 19.772354 
-31.579926 -1.148705 20.418701 
14.420067 19.851288 48.019165 
13.733864 19.851288 48.689667 
13.420067 20.439552 48.689667 
13.420067 20.851288 48.465561 
13.165962 20.851288 48.689667 
82.420052 -6.148705 -15.039864 
82.091988 -6.148705 -14.310318 
35.420067 25.851288 18.135651 
-30.579926 -4.451164 21.689682 
-30.579926 -4.148705 21.631104 
82.420052 -5.148705 -14.945702 
-30.478111 -4.148705 21.689682 
82.143257 -5.148705 -14.310318 
36.420067 25.851288 17.929962 
13.420067 19.851288 48.976105 
-30.579926 -3.148705 21.390915 
82.543510 -6.148705 -15.310318 
12.570732 19.851288 49.689667 
-30.046112 -3.148705 21.689682 
82.584724 -5.148705 -15.310318 
-31.525345 -2.148705 20.689682 
-31.136887 -1.148705 20.689682 
31.420067 28.600693 17.689682 
31.420067 28.851288 17.546387 
31.036949 28.851288 17.689682 
81.623070 -8.148705 -13.310318 
-30.579926 -2.148705 21.220642 
32.420067 28.045151 17.689682 
32.420067 28.851288 17.242630 
81.651451 -7.148705 -13.310318 
30.420067 30.786606 16.689682 
30.420067 30.851288 16.650116 
30.296593 30.851288 16.689682 
-29.662712 -2.148705 21.689682 
30.420067 29.260406 17.689682 
30.420067 29.851288 17.300934 
29.542809 29.851288 17.689682 
81.420052 -8.148705 -12.846542 
81.188637 -8.148705 -12.310318 
13.420067 21.851288 47.803406 
12.453743 21.851288 48.689667 
-30.579926 -1.148705 21.012207 
29.420067 29.933029 17.689682 
29.420067 30.851288 17.024445 
-29.579926 -1.946518 21.689682 
-29.579926 -1.148705 21.512497 
81.420052 -7.148705 -12.761154 
81.230324 -7.148705 -12.310318 
-29.218346 -1.148705 21.689682 
31.420067 30.319656 16.689682 
31.420067 30.851288 16.394455 
81.662651 -6.148705 -13.310318 
-29.579926 -4.148705 22.176605 
32.420067 29.944855 16.689682 
32.420067 30.851288 16.241318 
81.730675 -5.148705 -13.310318 
-29.579926 -3.148705 21.947113 
81.420052 -6.148705 -12.724457 
81.251427 -6.148705 -12.310318 
31.420067 29.851288 16.978958 
-28.579926 -4.297218 22.689682 
-28.579926 -4.148705 22.658737 
32.420067 29.851288 16.742599 
-28.515938 -4.148705 22.689682 
81.420052 -5.148705 -12.549164 
81.320152 -5.148705 -12.310318 
-28.579926 -3.148705 22.413818 
-27.932877 -3.148705 22.689682 
21.253380 9.851288 40.689667 
82.420052 -4.148705 -14.929565 
21.420067 9.851288 40.566360 
82.157967 -4.148705 -14.310318 
30.420067 27.707962 18.689682 
30.420067 27.851288 18.595871 
30.199913 27.851288 18.689682 
82.420052 -3.148705 -14.905716 
82.160896 -3.148705 -14.310318 
29.420067 28.392227 18.689682 
29.420067 28.851288 18.408676 
28.806374 28.851288 18.689682 
22.420067 9.851288 39.751999 
-27.579926 -4.148705 23.109558 
82.587959 -4.148705 -15.310318 
21.420067 10.007683 40.689667 
30.420067 28.851288 17.948380 
82.603065 -3.148705 -15.310318 
-27.579926 -3.148705 22.841537 
22.420067 10.851288 40.357971 
22.061012 10.851288 40.689667 
29.420067 27.851288 19.013351 
-29.579926 -2.148705 21.733032 
-28.579926 -2.148705 22.223618 
21.420067 10.851288 41.234985 
82.420052 -2.148705 -14.831001 
20.867928 10.851288 41.689667 
82.201439 -2.148705 -14.310318 
82.420052 -1.148705 -14.661110 
-27.579926 -2.387306 22.689682 
-27.579926 -2.148705 22.644943 
82.281242 -1.148705 -14.310318 
82.626564 -2.148705 -15.310318 
31.420067 27.042587 18.689682 
31.420067 27.851288 18.172287 
-28.579926 -1.148705 21.994049 
82.678612 -1.148705 -15.310318 
-27.579926 -1.148705 22.413025 
32.420067 27.851288 17.814758 
-37.579926 -0.148705 15.925598 
81.755638 -4.148705 -13.310318 
-37.579926 0.851295 15.735840 
81.757469 -3.148705 -13.310318 
-36.604637 -0.148705 16.689682 
81.420052 -4.148705 -12.455841 
81.361885 -4.148705 -12.310318 
-36.579926 -0.058609 16.689682 
-36.579926 0.851295 16.495224 
29.420067 29.851288 17.749039 
-36.329742 0.851295 16.689682 
81.420052 -3.148705 -12.424126 
81.377968 -3.148705 -12.310318 
-36.579926 -0.148705 16.709152 
-35.579926 -0.148705 17.482758 
81.821800 -2.148705 -13.310318 
81.906868 -1.148705 -13.310318 
81.420052 -2.579712 -12.310318 
22.342888 11.851288 40.689667 
22.420067 11.851288 40.605698 
-35.579926 0.851295 17.274734 
33.420067 27.623657 17.689682 
33.420067 27.851288 17.546143 
32.859032 27.851288 17.689682 
22.420067 12.851288 40.686798 
22.417809 12.851288 40.689667 
81.461906 -2.148705 -12.310318 
34.420067 27.178650 17.689682 
34.420067 27.851288 17.324066 
21.347572 11.851288 41.689667 
21.420067 11.851288 41.620407 
81.544380 -1.148705 -12.310318 
-36.579926 1.851295 16.351501 
33.420067 28.851288 17.015732 
-36.112068 1.851295 16.689682 
80.420052 -8.148705 -10.473061 
80.356483 -8.148705 -10.310318 
21.420067 12.098770 41.689667 
34.420067 28.851288 16.861389 
80.420052 -7.148705 -10.335815 
-36.579926 2.851295 16.217789 
80.410042 -7.148705 -10.310318 
36.420067 28.813583 16.689682 
36.420067 28.851288 16.675079 
36.226051 28.851288 16.689682 
80.420052 -7.007988 -10.310318 
21.536766 12.851288 41.689667 
-35.914070 2.851295 16.689682 
80.013756 -8.148705 -9.310318 
35.420067 27.851288 17.169968 
-35.579926 1.851295 17.073776 
80.062828 -7.148705 -9.310318 
-35.579926 2.851295 16.915390 
36.420067 27.851288 17.063904 
22.287178 13.851288 40.689667 
22.420067 13.851288 40.502350 
79.699913 -8.148705 -8.310318 
-36.579926 3.851295 16.000687 
35.420067 28.851288 16.756256 
21.949120 14.851288 40.689667 
22.420067 14.851288 39.946884 
79.744102 -7.148705 -8.310318 
-35.623512 3.851295 16.689682 
21.480247 13.851288 41.689667 
-36.579926 4.851295 15.796326 
80.420052 -6.148705 -10.156830 
80.097328 -6.148705 -9.310318 
21.420067 14.162880 41.689667 
21.420067 14.851288 41.436661 
21.235222 14.851288 41.689667 
33.420067 29.584991 16.689682 
33.420067 29.851288 16.570419 
32.689903 29.851288 16.689682 
-35.579926 3.994858 16.689682 
-35.579926 4.851295 16.499069 
80.420052 -5.148705 -10.016556 
80.144356 -5.148705 -9.310318 
34.420067 29.261169 16.689682 
34.420067 29.851288 16.457199 
79.759621 -6.148705 -8.310318 
-35.579926 3.851295 16.720032 
33.420067 30.851288 16.164856 
79.776253 -5.148705 -8.310318 
34.420067 30.851288 16.119202 
80.755043 -8.148705 -11.310318 
-35.579926 5.851295 16.260925 
80.806831 -7.148705 -11.310318 
-35.579926 6.851288 15.958954 
21.420067 12.851288 41.810562 
20.536079 12.851288 42.689667 
-35.293648 -0.148705 17.689682 
-35.013840 0.851295 17.689682 
35.420067 29.013016 16.689682 
35.420067 29.851288 16.373795 
80.867119 -6.148705 -11.310318 
20.606056 13.851288 42.689667 
21.420067 13.851288 41.759506 
-34.698570 1.851295 17.689682 
80.925529 -5.148705 -11.310318 
36.420067 29.851288 16.324554 
-34.579926 2.233398 17.689682 
-34.579926 2.851295 17.562729 
80.481407 -6.148705 -10.310318 
35.420067 30.851288 16.068130 
-34.381592 2.851295 17.689682 
20.473030 14.851288 42.689667 
80.537315 -5.148705 -10.310318 
36.420067 30.851288 16.027496 
-34.579926 -0.148705 18.183990 
-33.811287 -0.148705 18.689682 
-34.579926 0.851295 17.992966 
80.420052 -4.148705 -9.875282 
80.200417 -4.148705 -9.310318 
80.420052 -3.148705 -9.729568 
80.243599 -3.148705 -9.310318 
-33.579926 0.635017 18.689682 
-33.579926 0.851295 18.648483 
21.521736 15.851288 40.689667 
79.807030 -4.148705 -8.310318 
21.420067 16.048637 40.689667 
21.420067 16.851288 39.866241 
20.973991 16.851288 40.689667 
-33.579926 -0.148705 18.840500 
79.841789 -3.148705 -8.310318 
-33.514435 0.851295 18.689682 
80.420052 -2.148705 -9.662704 
80.267204 -2.148705 -9.310318 
30.420067 23.501144 20.689682 
30.420067 23.851288 20.553955 
29.970284 23.851288 20.689682 
20.859550 15.851288 41.689667 
21.420067 15.851288 40.848251 
29.420067 24.297485 20.689682 
29.420067 24.851288 20.469910 
28.742958 24.851288 20.689682 
80.420052 -1.148705 -9.656311 
-32.579926 -0.842453 19.689682 
-32.579926 -0.148705 19.504852 
80.259453 -1.148705 -9.310318 
-32.298042 -0.148705 19.689682 
79.860176 -2.148705 -8.310318 
30.420067 24.851288 20.179291 
79.841164 -1.148705 -8.310318 
-32.579926 0.851295 19.264877 
29.420067 22.851288 21.227325 
29.420067 23.851288 20.863876 
80.976524 -4.148705 -11.310318 
-31.879288 0.851295 19.689682 
81.037575 -3.148705 -11.310318 
30.420067 22.851288 20.944611 
-34.579926 1.851295 17.771271 
80.589638 -4.148705 -10.310318 
-33.579926 1.851295 18.426880 
80.663322 -3.148705 -10.310318 
81.107262 -2.148705 -11.310318 
81.420052 -2.148705 -12.195198 
-33.579926 2.851295 18.195221 
31.420067 22.877243 20.689682 
31.420067 23.851288 20.293961 
-33.159798 1.851295 18.689682 
31.469109 22.851288 20.689682 
32.420067 22.851288 20.484650 
81.420052 -1.148705 -11.983627 
32.420067 23.851288 20.058868 
81.159126 -1.148705 -11.310318 
-32.777641 2.851295 18.689682 
31.420067 24.851288 19.866364 
-32.579926 1.851295 19.037857 
80.705727 -2.148705 -10.310318 
44.420052 -5.411392 27.689667 
44.420052 -5.148705 27.629105 
44.245110 -5.148705 27.689667 
-31.579926 1.539581 19.689682 
-31.579926 1.851295 19.611206 
80.727348 -1.148705 -10.310318 
40.420052 -1.600067 27.689667 
40.420052 -1.148705 27.578888 
39.719307 -1.148705 27.689667 
31.420067 22.851288 20.700760 
-32.579926 2.851295 18.809982 
44.420052 -4.148705 27.383316 
43.449730 -4.148705 27.689667 
-31.579926 2.851295 19.371368 
43.420052 -4.107185 27.689667 
43.420052 -3.148705 27.479843 
42.589363 -3.148705 27.689667 
29.420067 25.851288 20.054764 
-31.445038 1.851295 19.689682 
-30.976730 2.851295 19.689682 
44.420052 -3.148705 27.198944 
30.420067 25.851288 19.705688 
-35.296555 4.851295 16.689682 
41.420052 -2.269585 27.689667 
41.420052 -2.148705 27.656601 
41.239326 -2.148705 27.689667 
-34.579926 3.851295 17.363968 
82.420052 -0.148705 -14.606567 
82.299828 -0.148705 -14.310318 
42.420052 -3.005966 27.689667 
42.420052 -2.148705 27.451492 
-34.039253 3.851295 17.689682 
82.263069 0.851295 -14.310318 
82.420052 0.851295 -14.677460 
41.420052 -1.148705 27.405594 
82.706947 -0.148705 -15.310318 
-34.579926 4.851295 17.147018 
82.694633 0.851295 -15.310318 
42.420052 -1.148705 27.194138 
-33.639778 4.851295 17.689682 
44.420052 -1.323189 26.689667 
44.420052 -1.148705 26.639664 
44.270073 -1.148705 26.689667 
-34.867241 5.851295 16.689682 
43.420052 -2.148705 27.226532 
-34.579926 6.390732 16.689682 
-34.579926 6.851288 16.544403 
33.420067 22.851288 20.256210 
82.225945 1.851295 -14.310318 
33.420067 23.851288 19.794388 
82.420052 1.851295 -14.752296 
-34.337395 6.851288 16.689682 
44.420052 -2.148705 26.943481 
82.420052 2.851295 -14.846802 
82.186165 2.851295 -14.310318 
-34.579926 5.851295 16.862991 
43.420052 -1.148705 26.953232 
34.420067 22.851288 20.009277 
82.672447 1.851295 -15.310318 
-33.579926 4.997322 17.689682 
-33.579926 5.851295 17.470062 
82.626442 2.851295 -15.310318 
37.420052 -8.325897 29.689667 
37.420052 -8.148705 29.606110 
37.167915 -8.148705 29.689667 
35.420067 22.851288 19.750137 
-33.579926 6.851288 17.153107 
38.420052 -8.148705 29.356323 
-33.207771 5.851295 17.689682 
81.902000 -0.148705 -13.310318 
-32.658920 6.851288 17.689682 
37.420052 -7.148705 29.240921 
81.860100 0.851295 -13.310318 
24.420067 34.592239 16.689682 
24.420067 34.851288 16.423553 
24.073997 34.851288 16.689682 
-33.579926 3.851295 17.962738 
24.420067 33.585281 17.689682 
24.420067 33.851288 17.433395 
24.091118 33.851288 17.689682 
81.507179 -0.148705 -12.310318 
38.420052 -7.148705 29.133133 
-33.579926 4.851295 17.724258 
23.420067 34.393021 17.689682 
23.420067 34.851288 17.218719 
22.867653 34.851288 17.689682 
81.454414 0.851295 -12.310318 
39.420052 -8.148705 29.214325 
-32.579926 3.338120 18.689682 
-32.579926 3.851295 18.556427 
81.823936 1.851295 -13.310318 
40.420052 -8.148705 29.092758 
-32.358879 3.851295 18.689682 
81.772240 2.851295 -13.310318 
39.420052 -7.148705 29.037277 
-32.579926 4.851295 18.285568 
24.420067 32.435730 18.689682 
24.420067 32.851288 18.353210 
23.965599 32.851288 18.689682 
81.420052 1.579094 -12.310318 
81.420052 1.851295 -12.339722 
81.407524 1.851295 -12.310318 
40.420052 -7.148705 28.922073 
24.420067 31.059784 19.689682 
24.420067 31.851288 19.126984 
23.658043 31.851288 19.689682 
-31.847046 4.851295 18.689682 
23.420067 32.093063 19.689682 
23.420067 32.851288 19.096481 
22.687859 32.851288 19.689682 
37.420052 -6.148705 28.967682 
81.359749 2.851295 -12.310318 
38.420052 -6.148705 28.898651 
81.420052 2.851295 -12.457878 
-31.579926 3.851295 19.135712 
37.420052 -5.148705 28.718018 
22.420067 34.218597 18.689682 
22.420067 34.851288 18.074783 
21.747292 34.851288 18.689682 
-31.579926 4.851295 18.837875 
38.420052 -5.148705 28.702835 
22.420067 33.126862 19.689682 
22.420067 33.851288 19.038910 
21.717369 33.851288 19.689682 
82.154900 3.851295 -14.310318 
82.420052 3.851295 -14.909294 
39.420052 -5.373032 28.689667 
39.420052 -5.148705 28.651108 
38.774574 -5.148705 28.689667 
21.420067 34.147293 19.689682 
21.420067 34.851288 19.000992 
20.726219 34.851288 19.689682 
82.107491 4.851295 -14.310318 
82.420052 4.851295 -15.038918 
-32.579926 5.851295 18.039062 
40.420052 -6.061806 28.689667 
40.420052 -5.148705 28.533432 
82.598839 3.851295 -15.310318 
39.420052 -6.148705 28.825211 
-31.579926 5.336845 18.689682 
-31.579926 5.851295 18.537888 
82.537712 4.851295 -15.310318 
23.420067 33.328079 18.689682 
23.420067 33.851288 18.213165 
22.829445 33.851288 18.689682 
40.420052 -6.148705 28.705460 
-32.579926 6.851288 17.734650 
-31.579926 6.851288 18.246887 
82.420052 6.505592 -15.310318 
82.420052 6.851288 -15.320663 
82.415413 6.851288 -15.310318 
82.022423 5.851295 -14.310318 
82.420052 5.851295 -15.281212 
-30.579926 3.679848 19.689682 
-30.579926 3.851295 19.645920 
-30.492699 3.851295 19.689682 
81.973885 6.851288 -14.310318 
-30.579926 4.851295 19.359482 
82.432503 5.851295 -15.310318 
-29.910034 4.851295 19.689682 
42.420052 -7.993515 28.689667 
42.420052 -7.148705 28.532806 
41.678459 -7.148705 28.689667 
-31.271584 5.851295 18.689682 
41.420052 -8.148705 28.932266 
25.420067 32.811996 17.689682 
25.420067 32.851288 17.654907 
25.369225 32.851288 17.689682 
-30.585472 6.851288 18.689682 
42.420052 -8.148705 28.722977 
26.420067 32.034546 17.689682 
26.420067 32.851288 17.008911 
41.420052 -7.148705 28.744247 
-30.579926 5.851295 19.021988 
81.727379 3.851295 -13.310318 
27.420067 32.549149 16.689682 
27.420067 32.851288 16.445114 
26.958763 32.851288 16.689682 
81.679314 4.851295 -13.310318 
-29.579926 5.299126 19.689682 
-29.579926 5.851295 19.484451 
28.420067 31.911789 16.689682 
28.420067 32.851288 16.022400 
81.301903 3.851295 -12.310318 
81.420052 3.851295 -12.590225 
43.420052 -9.058701 28.689667 
43.420052 -8.148705 28.470169 
42.554527 -8.148705 28.689667 
27.420067 31.282776 17.689682 
27.420067 31.851288 17.255615 
26.657539 31.851288 17.689682 
-30.579926 6.851288 18.692123 
-29.579926 6.851288 19.118301 
44.420052 -8.148705 28.201340 
28.420067 31.851288 16.736343 
81.243126 4.851295 -12.310318 
81.420052 4.851295 -12.715416 
-29.139816 5.851295 19.689682 
43.420052 -7.148705 28.332291 
-28.579926 6.498032 19.689682 
-28.579926 6.851288 19.547501 
81.598061 5.851295 -13.310318 
44.420052 -7.148705 28.058823 
-28.261261 6.851288 19.689682 
81.529335 6.851288 -13.310318 
26.420067 33.202362 16.689682 
26.420067 33.851288 16.130112 
25.453407 33.851288 16.689682 
81.168617 5.851295 -12.310318 
81.420052 5.851295 -12.899063 
-31.579926 -0.148705 20.136734 
25.420067 33.873962 16.689682 
25.420067 34.851288 15.760834 
41.420052 -6.852730 28.689667 
41.420052 -6.148705 28.565750 
40.538521 -6.148705 28.689667 
81.095436 6.851288 -12.310318 
81.420052 6.851288 -13.065392 
-31.579926 0.851295 19.866745 
42.420052 -6.148705 28.402588 
-30.589005 -0.148705 20.689682 
80.237953 -0.148705 -9.310318 
80.420052 -0.148705 -9.706818 
25.420067 33.851288 16.711182 
41.420052 -5.148705 28.393784 
80.223473 0.851295 -9.310318 
80.420052 0.851295 -9.781380 
-30.579926 -0.132599 20.689682 
-30.579926 0.851295 20.405655 
42.420052 -5.148705 28.203079 
-30.050598 0.851295 20.689682 
79.802483 -0.148705 -8.310318 
-30.579926 -0.148705 20.694824 
79.799797 0.851295 -8.310318 
-29.579926 -0.148705 21.231445 
80.187523 1.851295 -9.310318 
80.420052 1.851295 -9.882118 
80.135963 2.851295 -9.310318 
80.420052 2.851295 -9.989090 
27.420067 33.851288 15.706253 
43.420052 -6.148705 28.169769 
-29.579926 0.851295 20.940796 
79.788063 1.851295 -8.310318 
44.420052 -6.148705 27.853592 
-28.608238 -0.148705 21.689682 
79.731224 2.851295 -8.310318 
43.420052 -5.148705 27.949615 
81.115410 -0.148705 -11.310318 
-28.579926 -0.105972 21.689682 
-28.579926 0.851295 21.411377 
81.420052 -0.148705 -12.090385 
-27.928894 0.851295 21.689682 
37.420052 -5.025841 28.689667 
37.420052 -4.148705 28.499023 
25.420067 31.515320 18.689682 
25.420067 31.851288 18.445862 
25.051750 31.851288 18.689682 
81.046791 0.851295 -11.310318 
81.420052 0.851295 -12.229004 
-30.579926 1.851295 20.176910 
38.420052 -5.078644 28.689667 
38.420052 -4.148705 28.507584 
26.420067 31.851288 17.826431 
-29.579926 1.839569 20.689682 
-29.579926 1.851295 20.686798 
37.420052 -3.148705 28.287964 
80.695473 -0.148705 -10.310318 
-30.579926 2.851295 19.902237 
80.639687 0.851295 -10.310318 
38.420052 -3.148705 28.261337 
-29.579926 2.851295 20.424637 
80.993675 1.851295 -11.310318 
-29.574059 1.851295 20.689682 
-29.051132 2.851295 20.689682 
80.963829 2.851295 -11.310318 
39.420052 -4.148705 28.455963 
-28.579926 1.851295 21.139008 
80.596764 1.851295 -10.310318 
40.420052 -4.148705 28.344666 
80.559441 2.851295 -10.310318 
-27.579926 1.302940 21.689682 
-27.579926 1.851295 21.517761 
39.420052 -3.148705 28.190613 
-28.579926 2.851295 20.908905 
40.420052 -3.148705 28.083633 
-27.579926 2.851295 21.267227 
37.420052 -2.148705 28.088516 
-28.579926 -0.148705 21.702591 
22.420067 36.119965 16.689682 
22.420067 36.851288 15.861603 
21.542336 36.851288 16.689682 
38.420052 -2.148705 28.061661 
-27.579926 -0.148705 22.110428 
80.420052 4.882225 -10.310318 
80.420052 5.851295 -10.487122 
80.343391 5.851295 -10.310318 
22.420067 35.219269 17.689682 
22.420067 35.851288 16.991440 
21.659920 35.851288 17.689682 
37.420052 -1.148705 27.909622 
21.420067 36.054260 17.689682 
21.420067 36.851288 16.806564 
20.538612 36.851288 17.689682 
80.252800 6.851288 -10.310318 
80.420052 6.851288 -10.699806 
38.420052 -1.148705 27.850967 
-27.579926 0.851295 21.834167 
80.420052 3.851295 -10.094215 
80.092155 3.851295 -9.310318 
39.420052 -2.148705 27.967850 
80.013985 4.851295 -9.310318 
80.420052 4.851295 -10.304489 
40.420052 -2.148705 27.828400 
23.420067 35.334824 16.689682 
23.420067 35.851288 16.105392 
22.753212 35.851288 16.689682 
79.678017 3.851295 -8.310318 
39.420052 -1.148705 27.733749 
-29.579926 3.851295 20.131104 
79.595757 4.851295 -8.310318 
-29.579926 4.851295 19.844681 
79.916298 5.851295 -9.310318 
-28.579926 3.548141 20.689682 
-28.579926 3.851295 20.582260 
41.420052 -4.148705 28.194870 
79.826118 6.851288 -9.310318 
-28.350761 3.851295 20.689682 
42.420052 -4.148705 27.978668 
79.487236 5.851295 -8.310318 
-28.579926 4.851295 20.246933 
41.420052 -3.148705 27.934570 
79.420052 6.506203 -8.310318 
79.420052 6.851288 -8.388985 
79.384590 6.851288 -8.310318 
42.420052 -3.148705 27.729996 
-27.579926 4.750214 20.689682 
-27.579926 4.851295 20.650269 
43.420052 -4.148705 27.698990 
80.906685 3.851295 -11.310318 
-27.579926 3.851295 21.023193 
80.828209 4.851295 -11.310318 
21.420067 36.953171 16.689682 
80.512688 3.851295 -10.310318 
80.422493 4.851295 -10.310318 
-28.579926 5.851295 19.941940 
80.766823 5.851295 -11.310318 
-27.579926 5.851295 20.322998 
80.683083 6.851288 -11.310318 
-27.579926 6.851288 19.982315 
46.420052 -8.704659 27.689667 
46.420052 -8.148705 27.560928 
46.085075 -8.148705 27.689667 
21.420067 35.148315 18.689682 
21.420067 35.851288 17.913940 
20.642403 35.851288 18.689682 
-44.579918 7.851288 8.478210 
46.420052 -7.148705 27.364822 
45.500450 -7.148705 27.689667 
-44.356812 7.851288 8.689682 
48.420052 -7.830902 26.689667 
48.420052 -7.148705 26.558426 
48.129692 -7.148705 26.689667 
-44.579918 8.851288 8.396683 
47.420052 -8.148705 27.163391 
-44.268776 8.851288 8.689682 
48.420052 -8.148705 26.755829 
-43.579918 7.851288 9.425766 
47.420052 -7.148705 26.993027 
-43.579918 8.851288 9.304184 
-44.579918 9.851288 8.273254 
45.420052 -7.035172 27.689667 
45.420052 -6.148705 27.473083 
44.851692 -6.148705 27.689667 
-44.121635 9.851288 8.689682 
-44.579918 10.851288 8.130844 
46.420052 -6.148705 27.136292 
-43.948120 10.851288 8.689682 
45.420052 -5.148705 27.273148 
-43.579918 9.851288 9.162613 
-43.579918 10.851288 9.011841 
46.420052 -5.148705 26.928818 
22.420067 31.847687 20.689682 
22.420067 31.851288 20.686966 
22.416924 31.851288 20.689682 
48.420052 -6.148705 26.395416 
47.718941 -6.148705 26.689667 
-44.579918 11.851288 7.979172 
22.420067 32.851288 19.914062 
21.553246 32.851288 20.689682 
47.420052 -5.682037 26.689667 
47.420052 -5.148705 26.540085 
47.050560 -5.148705 26.689667 
-43.799484 11.851288 8.689682 
21.420067 31.714523 21.689682 
21.420067 31.851288 21.586578 
21.313316 31.851288 21.689682 
48.420052 -5.148705 26.131943 
-44.579918 12.851288 7.782333 
47.420052 -6.148705 26.809174 
-43.579918 12.784950 8.689682 
-43.579918 12.851288 8.673935 
21.420067 32.851288 20.812958 
20.524529 32.851288 21.689682 
-43.579918 11.851288 8.880478 
23.420067 31.851288 19.871460 
50.420052 -7.290779 25.689667 
50.420052 -7.148705 25.655624 
50.348747 -7.148705 25.689667 
-43.579918 13.851288 8.421341 
51.420052 -8.148705 25.432434 
50.866600 -8.148705 25.689667 
-43.579918 14.851288 8.101425 
52.420052 -8.148705 24.954315 
-43.579918 15.851288 7.702835 
51.420052 -7.148705 25.191772 
-43.298676 7.851288 9.689682 
52.420052 -7.148705 24.709656 
21.420067 33.006424 20.689682 
21.420067 33.851288 19.967041 
20.665718 33.851288 20.689682 
-43.133034 8.851288 9.689682 
50.420052 -6.148705 25.473969 
49.985588 -6.148705 25.689667 
-42.962715 9.851288 9.689682 
50.420052 -5.148705 25.271332 
49.485405 -5.148705 25.689667 
52.420052 -7.070824 24.689667 
52.420052 -6.148705 24.466385 
52.002785 -6.148705 24.689667 
-42.795349 10.851288 9.689682 
52.420052 -5.148705 24.248932 
51.585243 -5.148705 24.689667 
-42.579926 7.851288 10.340546 
51.420052 -6.148705 24.994522 
-42.175377 7.851288 10.689682 
-42.579926 8.851288 10.159012 
-41.949059 8.851288 10.689682 
51.420052 -5.148705 24.778595 
-41.579926 7.851288 11.194000 
-41.579926 8.851288 10.995316 
49.420052 -8.148705 26.319931 
48.568977 -8.148705 26.689667 
-40.982735 7.851288 11.689682 
50.420052 -8.148705 25.894196 
-40.694122 8.851288 11.689682 
49.420052 -7.148705 26.118546 
-42.579926 9.851288 10.013443 
-41.756416 9.851288 10.689682 
-42.579926 10.851288 9.868896 
-41.579926 10.572754 10.689682 
-41.579926 10.851288 10.635422 
-41.579926 9.851288 10.828369 
29.420067 31.326675 16.689682 
29.420067 31.851288 16.346802 
28.521843 31.851288 16.689682 
49.420052 -6.148705 25.962341 
-41.504112 10.851288 10.689682 
30.420067 31.851288 16.098938 
-40.579926 9.317360 11.689682 
-40.579926 9.851288 11.591187 
49.420052 -5.148705 25.718964 
-40.444160 9.851288 11.689682 
29.420067 32.851288 15.778503 
-40.579926 10.851288 11.350800 
48.420052 -3.167015 25.689667 
48.420052 -3.148705 25.685638 
48.410210 -3.148705 25.689667 
-40.112144 10.851288 11.689682 
48.420052 -2.148705 25.412292 
47.782082 -2.148705 25.689667 
-43.561600 12.851288 8.689682 
47.420052 -1.604355 25.689667 
47.420052 -1.148705 25.554230 
47.111763 -1.148705 25.689667 
-42.590736 11.851288 9.689682 
48.420052 -1.148705 25.134521 
46.420052 -4.134323 26.689667 
46.420052 -3.148705 26.462982 
45.877556 -3.148705 26.689667 
-42.579926 11.896973 9.689682 
-42.579926 12.851288 9.493912 
31.420067 31.851288 15.964401 
45.420052 -4.148705 27.060837 
-42.317719 12.851288 9.689682 
32.420067 31.851288 15.890564 
46.420052 -4.148705 26.693024 
-43.258301 13.851288 8.689682 
45.420052 -3.148705 26.871658 
-42.860115 14.851288 8.689682 
-42.579926 13.851288 9.235291 
-41.978447 13.851288 9.689682 
47.420052 -4.148705 26.287186 
46.428062 -4.148705 26.689667 
-42.579926 14.851288 8.906784 
48.420052 -4.148705 25.891113 
33.420067 31.851288 15.860260 
-41.579926 14.743675 9.689682 
-41.579926 14.851288 9.651199 
47.420052 -3.148705 26.067581 
34.420067 31.851288 15.850433 
-41.525566 14.851288 9.689682 
-42.579926 11.851288 9.698166 
84.491890 -1.148705 -19.310318 
-41.579926 11.851288 10.447235 
35.420067 31.851288 15.831329 
45.420052 -2.457970 26.689667 
45.420052 -2.148705 26.599091 
45.167046 -2.148705 26.689667 
36.420067 31.851288 15.767639 
-41.579926 12.851288 10.225220 
46.420052 -2.148705 26.236450 
-41.238701 11.851288 10.689682 
-40.934082 12.851288 10.689682 
45.420052 -1.148705 26.316208 
-40.579926 11.851288 11.144226 
35.420067 36.851288 15.690323 
-39.764259 11.851288 11.689682 
46.420052 -1.148705 25.972610 
36.420067 36.851288 15.840652 
34.420067 37.851288 15.892914 
-40.579926 12.851288 10.936340 
33.420067 38.851288 15.903687 
-39.579926 12.344620 11.689682 
-39.579926 12.851288 11.562531 
34.420067 38.851288 16.130386 
-41.579926 13.851288 9.974670 
47.420052 -2.148705 25.844025 
35.420067 37.851288 16.093277 
-40.579926 13.724854 10.689682 
-40.579926 13.851288 10.650833 
36.420067 37.851288 16.216034 
-40.520836 13.851288 10.689682 
35.420067 38.851288 16.251282 
-40.579926 14.851288 10.324951 
49.420052 -5.049019 25.689667 
49.420052 -4.148705 25.449173 
48.877037 -4.148705 25.689667 
36.420067 38.851288 16.333237 
-39.990456 14.851288 10.689682 
50.420052 -4.148705 25.030045 
20.420067 41.752136 13.689682 
20.420067 41.851288 13.644806 
20.339943 41.851288 13.689682 
20.420067 42.851288 13.262878 
49.420052 -3.148705 25.261337 
19.611931 42.851288 13.689682 
-39.579926 13.851288 11.272247 
20.420067 39.897186 14.689682 
20.420067 40.851288 14.125656 
19.635521 40.851288 14.689682 
50.420052 -3.148705 24.834641 
-39.579926 14.851288 10.934113 
19.420067 39.795151 15.689682 
19.420067 39.851288 15.638000 
19.367592 39.851288 15.689682 
51.420052 -4.792679 24.689667 
51.420052 -4.148705 24.541672 
51.127251 -4.148705 24.689667 
-39.359840 12.851288 11.689682 
20.420067 39.851288 14.723511 
-38.832901 13.851288 11.689682 
52.420052 -4.148705 24.041458 
19.420067 40.851288 14.867996 
18.544197 40.851288 15.689682 
51.420052 -3.148705 24.366684 
-38.579926 14.291969 11.689682 
-38.579926 14.851288 11.502991 
50.733742 -3.148705 24.689667 
-38.247375 14.851288 11.689682 
52.420052 -3.148705 23.862885 
-40.579926 7.851288 12.022415 
18.420067 42.589035 14.689682 
18.420067 42.851288 14.561340 
18.269524 42.851288 14.689682 
-39.766747 7.851288 12.689682 
18.420067 41.018814 15.689682 
18.420067 41.851288 15.107986 
17.819954 41.851288 15.689682 
17.420067 42.490768 15.689682 
17.420067 42.851288 15.486359 
17.221886 42.851288 15.689682 
-40.579926 8.851288 11.775879 
-39.579926 8.333176 12.689682 
-39.579926 8.851288 12.532883 
50.420052 -2.662086 24.689667 
50.420052 -2.148705 24.527115 
50.057884 -2.148705 24.689667 
50.420052 -1.148705 24.267914 
-39.579926 7.851288 12.838943 
49.423027 -1.148705 24.689667 
19.420067 41.130096 14.689682 
19.420067 41.851288 14.279663 
18.894524 41.851288 14.689682 
49.420052 -2.148705 24.977783 
-39.579926 9.851288 12.299210 
19.420067 42.851288 13.813980 
49.420052 -1.148705 24.691055 
-39.579926 10.851288 12.069412 
-39.375237 8.851288 12.689682 
-38.579926 7.496246 13.689682 
-38.579926 7.851288 13.601852 
51.420052 -2.148705 24.081573 
-38.459572 7.851288 13.689682 
52.235222 -2.148705 23.689682 
52.420052 -2.499596 23.689682 
-38.579926 8.851288 13.300354 
16.420067 44.587585 15.689682 
16.420067 44.851288 15.603378 
16.331902 44.851288 15.689682 
51.420052 -1.148705 23.880463 
-38.036484 8.851288 13.689682 
16.420067 45.851288 15.378433 
16.072227 45.851288 15.689682 
51.853767 -1.148705 23.689682 
-39.021515 9.851288 12.689682 
16.420067 46.851288 15.316757 
15.973534 46.851288 15.689682 
-38.666687 10.851288 12.689682 
20.420067 44.540939 12.689682 
20.420067 44.851288 12.621368 
20.272758 44.851288 12.689682 
-38.579926 9.851288 13.000870 
19.420067 43.167358 13.689682 
19.420067 43.851288 13.442383 
19.031197 43.851288 13.689682 
-37.579926 9.797859 13.689682 
-37.579926 9.851288 13.671967 
20.420067 43.851288 12.937073 
-38.579926 10.851288 12.747101 
45.420052 -8.148705 27.925110 
19.420067 44.851288 13.142609 
18.581718 44.851288 13.689682 
-37.579926 10.851288 13.358444 
-37.553200 9.851288 13.689682 
45.420052 -7.148705 27.718597 
-37.028397 10.851288 13.689682 
20.361320 45.851288 12.689682 
20.420067 45.851288 12.664719 
20.420067 45.941208 12.689682 
-37.579926 7.851288 14.317551 
19.420067 45.851288 13.128311 
18.506325 45.851288 13.689682 
-37.579926 8.851288 14.002899 
-37.024261 7.851288 14.689682 
18.763802 46.851288 13.689682 
19.420067 46.851288 13.361420 
-36.579926 8.765106 14.689682 
-36.579926 8.851288 14.662277 
38.420052 -0.536369 27.689667 
38.420052 -0.148705 27.587540 
37.429283 -0.148705 27.689667 
20.420067 46.851288 13.031006 
-36.537567 8.851288 14.689682 
37.420052 -0.146179 27.689667 
37.420052 0.851295 27.448914 
18.420067 43.851288 14.116119 
17.729897 43.851288 14.689682 
-36.579926 7.851288 14.976624 
17.420067 44.727371 14.689682 
17.420067 44.851288 14.661331 
17.388802 44.851288 14.689682 
38.420052 0.851295 27.370346 
-35.579926 7.635880 15.689682 
-35.579926 7.851288 15.613266 
39.420052 -0.983017 27.689667 
39.420052 -0.148705 27.476120 
84.470528 -0.148705 -19.310318 
18.420067 44.851288 13.807465 
84.461433 0.851295 -19.310318 
40.420052 -0.148705 27.354340 
17.420067 43.851288 14.978134 
16.716286 43.851288 15.689682 
-35.579926 8.851288 15.282379 
39.420052 0.851295 27.247940 
84.876839 2.851295 -20.310318 
84.449867 2.851295 -19.310318 
84.488350 1.851295 -19.310318 
40.420052 0.851295 27.129288 
-36.579926 9.851288 14.337982 
37.420052 1.851295 27.206558 
-36.032082 9.851288 14.689682 
38.420052 1.851295 27.137100 
-36.579926 10.851288 13.966400 
84.781258 3.851295 -20.310318 
37.420052 2.851295 27.017914 
-35.579926 10.556732 14.689682 
-35.579926 10.851288 14.565659 
84.720512 4.851295 -20.310318 
38.420052 2.851295 26.944229 
-35.579926 9.851288 14.966949 
40.420052 2.628120 26.689667 
40.420052 2.851295 26.619171 
40.065056 2.851295 26.689667 
17.420067 45.851288 14.526321 
39.420052 1.851295 27.041351 
17.221458 45.851288 14.689682 
-39.579926 11.851288 11.812317 
40.420052 1.851295 26.908768 
18.420067 45.851288 13.748825 
84.420052 10.762886 -20.310318 
84.420052 10.851288 -20.328636 
84.409554 10.851288 -20.310318 
39.420052 2.851295 26.808624 
17.420067 46.851288 14.540756 
17.216011 46.851288 14.689682 
-38.579926 11.049881 12.689682 
-38.579926 11.851288 12.447205 
84.232002 11.851288 -20.310318 
84.420052 11.851288 -20.718864 
-38.176239 11.851288 12.689682 
18.420067 46.851288 13.887802 
84.053932 12.851288 -20.310318 
84.420052 12.851288 -21.147690 
84.420052 13.267693 -21.310318 
84.420052 13.851288 -21.522972 
84.318840 13.851288 -21.310318 
-38.579926 12.851288 12.127151 
44.420052 2.709236 25.689667 
44.420052 2.851295 25.651596 
44.316338 2.851295 25.689667 
84.151192 14.851288 -21.310318 
84.420052 14.851288 -21.894669 
41.420052 -0.148705 27.191071 
-37.579926 12.819344 12.689682 
-37.579926 12.851288 12.677795 
83.871010 13.851288 -20.310318 
42.420052 -0.148705 26.996674 
83.677681 14.851288 -20.310318 
-37.579926 11.851288 13.042374 
41.420052 0.851295 27.001877 
84.118675 7.851288 -19.310318 
84.420052 7.851288 -19.965378 
16.161797 47.851288 15.689682 
16.420067 47.851288 15.482239 
42.420052 0.851295 26.788071 
-37.558731 12.851288 12.689682 
84.057625 8.851288 -19.310318 
16.420067 48.608490 15.689682 
84.420052 8.851288 -20.055176 
44.420052 -0.148705 26.434952 
43.641487 -0.148705 26.689667 
-36.579926 11.604805 13.689682 
-36.579926 11.851288 13.601608 
83.667107 7.851288 -18.310318 
19.346291 47.851288 13.689682 
43.420052 0.126007 26.689667 
43.420052 0.851295 26.500198 
42.775261 0.851295 26.689667 
19.420067 47.851288 13.660233 
-36.423012 11.851288 13.689682 
83.613014 8.851288 -18.310318 
20.420067 47.851288 13.373932 
44.420052 0.851295 26.203125 
-36.579926 12.851288 13.222290 
83.956612 9.851288 -19.310318 
84.420052 9.851288 -20.173111 
19.420067 47.937836 13.689682 
43.420052 -0.148705 26.757797 
-35.679977 12.851288 13.689682 
20.420067 48.706589 13.689682 
83.867744 10.851288 -19.310318 
-38.579926 13.851288 11.828140 
17.420067 47.666306 14.689682 
83.520500 9.851288 -18.310318 
-37.579926 13.851288 12.341904 
83.420052 10.674820 -18.310318 
83.420052 10.851288 -18.359505 
83.397179 10.851288 -18.310318 
18.420067 47.851288 14.115707 
17.491692 47.851288 14.689682 
42.420052 1.230042 26.689667 
42.420052 1.851295 26.521423 
41.718269 1.851295 26.689667 
18.052284 48.851288 14.689682 
18.420067 48.851288 14.483459 
-37.579926 14.851288 12.044250 
41.420052 2.053062 26.689667 
41.420052 2.851295 26.434525 
83.214409 7.851288 -17.310318 
83.420052 7.851288 -17.768105 
-36.892021 13.851288 12.689682 
17.420067 47.851288 14.738403 
42.420052 2.851295 26.243149 
-36.579926 14.326485 12.689682 
-36.579926 14.851288 12.514435 
83.141594 8.851288 -17.310318 
83.420052 8.851288 -17.895294 
-36.213974 14.851288 12.689682 
41.420052 1.851295 26.751740 
17.420067 48.851288 15.077545 
16.529228 48.851288 15.689682 
-36.579926 13.851288 12.851868 
82.803108 7.851288 -16.310318 
-35.579926 12.982872 13.689682 
-35.579926 13.851288 13.355087 
82.678169 8.851288 -16.310318 
83.037834 9.851288 -17.310318 
83.420052 9.851288 -18.096069 
19.420067 48.851288 14.047760 
-35.579926 14.851288 12.995224 
43.420052 1.851295 26.229858 
20.420067 48.851288 13.752808 
82.940834 10.851288 -17.310318 
44.420052 1.851295 25.927109 
18.420067 49.226868 14.689682 
-35.579926 11.851288 14.161591 
43.420052 2.851295 25.990601 
17.211357 49.851288 15.689682 
17.420067 49.851288 15.578339 
-35.579926 12.851288 13.744461 
82.561043 9.851288 -16.310318 
18.420067 49.851288 15.078247 
82.475151 10.851288 -16.310318 
-35.459778 7.851288 15.689682 
17.420067 50.052444 15.689682 
83.774879 11.851288 -19.310318 
-34.892403 8.851288 15.689682 
38.420052 6.719681 25.689667 
38.420052 6.851288 25.639389 
37.945045 6.851288 25.689667 
18.420067 50.793060 15.689682 
-35.368561 10.851288 14.689682 
40.420052 5.754814 25.689667 
40.420052 5.851295 25.653595 
40.228645 5.851295 25.689667 
83.607445 12.851288 -19.310318 
83.281105 11.851288 -18.310318 
83.420052 11.851288 -18.594620 
39.420052 6.262505 25.689667 
39.420052 6.851288 25.478806 
-34.579926 9.404228 15.689682 
-34.579926 9.851288 15.538101 
19.360359 49.851288 14.689682 
19.420067 49.851288 14.666687 
-34.315796 9.851288 15.689682 
20.420067 49.851288 14.358139 
40.420052 6.851288 25.313385 
83.108757 12.851288 -18.310318 
83.420052 12.851288 -18.934891 
19.420067 49.882126 14.689682 
-34.579926 10.851288 15.140320 
38.420052 3.719147 26.689667 
38.420052 3.851295 26.643768 
38.019508 3.851295 26.689667 
37.420052 3.974930 26.689667 
37.420052 4.851295 26.381042 
-33.627190 10.851288 15.689682 
83.420052 13.694214 -19.310318 
83.420052 13.851288 -19.384392 
83.382149 13.851288 -19.310318 
20.420067 50.301315 14.689682 
-34.924660 13.851288 13.689682 
38.420052 4.851295 26.292679 
-34.579926 14.282082 13.689682 
-34.579926 14.851288 13.454071 
37.420052 3.851295 26.735352 
83.151848 14.851288 -19.310318 
83.420052 14.851288 -19.815353 
18.521049 50.851288 15.689682 
19.420067 50.851288 15.377762 
-34.064331 14.851288 13.689682 
-34.637466 11.851288 14.689682 
20.420067 50.851288 15.081192 
82.882332 13.851288 -18.310318 
19.420067 51.321701 15.689682 
-34.579926 11.929337 14.689682 
-34.579926 12.851288 14.293167 
-33.850891 12.851288 14.689682 
20.420067 51.724747 15.689682 
82.663246 14.851288 -18.310318 
39.420052 3.234810 26.689667 
39.420052 3.851295 26.489334 
-34.579926 11.851288 14.722534 
12.420067 44.741730 19.689682 
12.420067 44.851288 19.635010 
12.371284 44.851288 19.689682 
82.420052 11.336639 -16.310318 
82.420052 11.851288 -16.456924 
82.348335 11.851288 -16.310318 
82.157661 12.851288 -16.310318 
82.420052 12.851288 -16.860901 
11.901268 45.851288 19.689682 
-33.579926 10.913834 15.689682 
-33.579926 11.851288 15.279175 
40.420052 3.851295 26.312088 
12.420067 45.851288 19.157700 
82.823540 11.851288 -17.310318 
39.420052 4.851295 26.179764 
12.420067 46.851288 18.800430 
11.484856 46.851288 19.689682 
82.633202 12.851288 -17.310318 
-33.579926 12.851288 14.837570 
40.420052 4.851295 26.018539 
12.420067 41.714767 21.689682 
12.420067 41.851288 21.570251 
12.336082 41.851288 21.689682 
-32.822151 11.851288 15.689682 
11.765739 42.851288 21.689682 
12.420067 42.851288 20.768509 
-32.579926 12.127922 15.689682 
-32.579926 12.851288 15.357178 
12.420067 40.745819 22.689682 
12.420067 40.851288 22.568832 
12.349205 40.851288 22.689682 
82.420052 13.873688 -17.310318 
82.420052 14.851288 -17.750069 
82.232552 14.851288 -17.310318 
-31.914627 12.851288 15.689682 
37.420052 5.851295 26.107315 
12.420067 39.976608 23.689682 
11.847984 40.851288 23.689682 
38.420052 5.851295 26.003265 
-34.579926 13.851288 13.868698 
81.979713 13.851288 -16.310318 
82.420052 13.851288 -17.299927 
11.728264 41.851288 22.689682 
37.420052 6.851288 25.732224 
-33.579926 13.166801 14.689682 
-33.579926 13.851288 14.373489 
11.420067 42.399994 22.689682 
11.420067 42.851288 22.257141 
11.171211 42.851288 22.689682 
81.804008 14.851288 -16.310318 
82.424782 13.851288 -17.310318 
-33.579926 14.851288 13.916641 
39.420052 5.851295 25.839050 
11.420067 41.533371 23.689682 
11.420067 41.851288 23.289337 
11.223885 41.851288 23.689682 
-32.991318 13.851288 14.689682 
-32.579926 14.282845 14.689682 
-32.579926 14.851288 14.390015 
10.629539 42.851288 23.689682 
-31.946274 14.851288 14.689682 
42.420052 4.556786 25.689667 
42.420052 4.851295 25.583755 
41.956993 4.851295 25.689667 
6.420067 46.604874 23.689682 
6.420067 46.851288 23.456558 
5.696266 46.851288 23.689682 
-32.579926 13.851288 14.911942 
44.420052 3.851295 25.427841 
43.507225 3.851295 25.689667 
8.420067 46.481995 22.689682 
8.420067 46.851288 22.402725 
7.979439 46.851288 22.689682 
43.420052 3.918701 25.689667 
43.420052 4.851295 25.371857 
-31.579926 13.213020 15.689682 
-31.579926 13.851288 15.388412 
8.420067 45.435959 23.689682 
8.420067 45.851288 23.255524 
7.826714 45.851288 23.689682 
83.994865 15.851288 -21.310318 
84.420052 15.851288 -22.251808 
7.420067 46.104797 23.689682 
7.420067 46.851288 23.011108 
44.420052 4.851295 25.137512 
-31.579926 14.851288 14.864304 
41.420052 5.193382 25.689667 
41.420052 5.851295 25.469391 
83.488762 15.851288 -20.310318 
-30.961266 13.851288 15.689682 
83.420052 16.145447 -20.310318 
83.420052 16.851288 -20.623955 
83.248543 16.851288 -20.310318 
42.420052 5.851295 25.282440 
12.420067 42.965759 20.689682 
12.420067 43.851288 20.155930 
11.988182 43.851288 20.689682 
-30.579926 14.211945 15.689682 
-30.579926 14.851288 15.339844 
83.802544 16.851288 -21.310318 
41.420052 6.851288 25.158096 
-29.871246 14.851288 15.689682 
11.518425 44.851288 20.689682 
84.291298 16.851288 -22.310318 
84.105385 17.851288 -22.310318 
83.545479 17.851288 -21.310318 
42.420052 6.851288 24.968109 
11.420067 43.529938 21.689682 
11.420067 43.851288 21.462540 
11.260048 43.851288 21.689682 
-42.579926 15.467201 8.689682 
-42.579926 15.851288 8.544998 
44.420052 6.302811 24.689667 
44.420052 6.851288 24.490799 
43.597588 6.851288 24.689667 
-42.391693 15.851288 8.689682 
83.420052 18.361923 -21.310318 
43.420052 5.851295 25.089188 
-42.579926 16.851288 8.109177 
44.420052 5.851295 24.845871 
83.016411 17.851288 -20.310318 
83.420052 17.851288 -21.092628 
10.733101 44.851288 21.689682 
11.420067 44.851288 20.813492 
-41.832436 16.851288 8.689682 
43.420052 6.851288 24.733658 
10.420067 45.360840 21.689682 
10.420067 45.851288 21.317947 
10.079262 45.851288 21.689682 
82.805092 18.851288 -20.310318 
83.318596 18.851288 -21.310318 
9.420067 46.708527 21.689682 
9.420067 46.851288 21.592239 
9.305397 46.851288 21.689682 
-41.579926 15.851288 9.270096 
41.420052 3.851295 26.136230 
-41.579926 16.851288 8.874786 
10.420067 46.851288 20.691162 
42.420052 3.851295 25.939117 
-40.968956 15.851288 9.689682 
11.420067 45.040009 20.689682 
11.420067 45.851288 20.201370 
10.970421 45.851288 20.689682 
41.420052 4.851295 25.811417 
-40.579926 16.545929 9.689682 
-40.579926 16.851288 9.566452 
-40.392052 16.851288 9.689682 
11.420067 46.851288 19.751755 
10.421623 46.851288 20.689682 
43.420052 3.851295 25.713043 
-41.579926 17.249802 8.689682 
-41.579926 17.851288 8.392700 
-41.579926 18.851288 7.856323 
-41.162193 17.851288 8.689682 
83.420052 20.851288 -21.916519 
83.005302 20.851288 -21.310318 
83.160667 19.851288 -21.310318 
10.420067 44.141220 22.689682 
10.420067 44.851288 22.088104 
9.923943 44.851288 22.689682 
37.420052 -0.148705 27.690292 
-40.579926 18.602356 8.689682 
-40.579926 18.851288 8.548462 
10.420067 43.188126 23.689682 
10.420067 43.851288 22.977875 
9.958931 43.851288 23.689682 
-40.367447 18.851288 8.689682 
9.420067 44.484116 23.689682 
9.420067 44.851288 23.290726 
9.062004 44.851288 23.689682 
82.590813 19.851288 -20.310318 
82.428444 20.851288 -20.310318 
-40.579926 17.851288 9.087784 
82.420052 20.896416 -20.310318 
82.420052 21.851288 -20.681931 
82.213844 21.851288 -20.310318 
-39.596466 17.851288 9.689682 
81.927071 22.851288 -20.310318 
82.420052 22.851288 -21.185890 
10.602974 43.851288 22.689682 
82.779274 21.851288 -21.310318 
83.420052 21.851288 -22.261566 
-39.579926 17.870674 9.689682 
-39.579926 18.851288 9.186066 
83.460579 21.851288 -22.310318 
83.735954 20.851288 -22.310318 
46.420052 0.020866 25.689667 
46.420052 0.851295 25.477768 
45.852211 0.851295 25.689667 
47.420052 -0.148705 25.325150 
-40.579926 15.851288 9.955078 
46.521996 -0.148705 25.689667 
83.120430 22.851288 -22.310318 
82.494026 22.851288 -21.310318 
48.420052 -0.148705 24.936752 
-39.579926 15.591690 10.689682 
-39.579926 15.851288 10.601593 
47.420052 0.851295 25.141357 
9.420067 45.475723 22.689682 
9.420067 45.851288 22.362671 
9.065971 45.851288 22.689682 
-39.579926 16.851288 10.204269 
48.420052 0.851295 24.754013 
82.420052 16.604752 -18.310318 
82.420052 16.851288 -18.388245 
82.389366 16.851288 -18.310318 
45.420052 1.443115 25.689667 
45.420052 1.851295 25.575989 
45.102760 1.851295 25.689667 
83.420052 15.851288 -20.185989 
82.956139 15.851288 -19.310318 
-39.579926 17.851288 9.699509 
46.420052 1.851295 25.217667 
-38.717964 18.851288 9.689682 
45.420052 2.851295 25.307785 
-39.430702 15.851288 10.689682 
82.778557 16.851288 -19.310318 
46.420052 2.851295 24.974106 
-38.718109 16.851288 10.689682 
48.420052 1.091667 24.689667 
48.420052 1.851295 24.480515 
47.875069 1.851295 24.689667 
82.509590 15.851288 -18.310318 
47.420052 2.497482 24.689667 
47.420052 2.851295 24.597870 
47.178413 2.851295 24.689667 
-38.579926 15.851288 11.155869 
48.420052 2.851295 24.253494 
-37.579926 15.765152 11.689682 
-37.579926 15.851288 11.653259 
82.420052 18.746513 -19.310318 
82.420052 18.851288 -19.368347 
82.397545 18.851288 -19.310318 
16.420067 42.595108 16.689682 
16.420067 42.851288 16.540207 
16.278664 42.851288 16.689682 
47.420052 1.851295 24.862488 
-38.579926 16.851288 10.763947 
82.222511 17.851288 -18.310318 
82.420052 17.851288 -18.836746 
16.420067 41.205078 17.689682 
16.420067 41.851288 17.185440 
15.948387 41.851288 17.689682 
-37.579926 16.851288 11.240860 
15.420067 42.667572 17.689682 
15.420067 42.851288 17.580048 
15.311058 42.851288 17.689682 
82.032982 18.851288 -18.310318 
-37.506744 15.851288 11.689682 
82.600334 17.851288 -19.310318 
-36.579926 16.795471 11.689682 
-36.579926 16.851288 11.662872 
16.420067 40.035873 18.689682 
16.420067 40.851288 17.972961 
15.753304 40.851288 18.689682 
-36.518539 16.851288 11.689682 
16.420067 38.971191 19.689682 
16.420067 39.851288 18.858307 
15.626961 39.851288 19.689682 
45.420052 -0.148705 26.104752 
15.420067 40.096603 19.689682 
15.420067 40.851288 19.040100 
14.773384 40.851288 19.689682 
-38.579926 17.004883 10.689682 
-38.579926 17.851288 10.262894 
46.420052 -0.148705 25.732361 
-37.783539 17.851288 10.689682 
82.098915 15.851288 -17.310318 
82.420052 15.851288 -18.094803 
45.420052 0.851295 25.852280 
-38.579926 18.851288 9.767838 
14.420067 42.642044 18.689682 
14.420067 42.851288 18.566391 
14.295845 42.851288 18.689682 
82.022148 16.851288 -17.310318 
14.420067 41.263733 19.689682 
14.420067 41.851288 19.213272 
13.963463 41.851288 19.689682 
-37.579926 18.063438 10.689682 
-37.579926 18.851288 10.292862 
81.654594 15.851288 -16.310318 
13.420067 42.696594 19.689682 
13.420067 42.851288 19.592346 
13.329750 42.851288 19.689682 
81.591805 16.851288 -16.310318 
-37.579926 17.851288 10.795059 
15.420067 41.274673 18.689682 
15.420067 41.851288 18.233459 
14.956734 41.851288 18.689682 
-36.753189 18.851288 10.689682 
81.872032 17.851288 -17.310318 
-36.579926 17.851288 11.237488 
49.420052 -1.142014 24.689667 
49.420052 -0.148705 24.507355 
48.993797 -0.148705 24.689667 
81.653206 18.851288 -17.310318 
-35.579926 17.732727 11.689682 
-35.579926 17.851288 11.636398 
81.449257 17.851288 -16.310318 
50.420052 -0.148705 24.129013 
